97.80116265 45.26601747 18.33827646 -0.182393739 -0.227799483 0.956472644
97.70161592 45.03747474 18.26695131 -0.186449225 -0.211198932 0.959495543
97.60129884 44.80822612 18.19853967 -0.194788115 -0.195324577 0.961200239
97.50022891 44.57839801 18.13263531 -0.208319699 -0.180264131 0.961305231
97.39877181 44.34796657 18.06714044 -0.228069617 -0.174585942 0.95786429
97.29752048 44.11772702 18.00026951 -0.25101791 -0.169338741 0.953055297
97.19654769 43.88778192 17.93246802 -0.27459405 -0.160804241 0.948019042
97.09605408 43.65766925 17.8631031 -0.299047548 -0.159805362 0.940761824
98.07230278 45.67923857 18.5078141 -0.224216363 -0.302449095 0.926418678
97.97783744 45.45655981 18.42086008 -0.193712701 -0.256431891 0.946951992
97.88008299 45.22995903 18.34472917 -0.181352752 -0.225759326 0.957154066
97.78040391 45.00130788 18.27429474 -0.184762112 -0.207467096 0.960635397
97.67985565 44.77187073 18.20709055 -0.193047588 -0.190500476 0.962518674
97.57859696 44.54177678 18.14265795 -0.204422478 -0.175350876 0.963049075
97.47681505 44.31107882 18.0789008 -0.223069512 -0.168958665 0.960048417
97.37499274 44.08059479 18.01408291 -0.247386008 -0.161690936 0.955330416
97.27342855 43.85028375 17.94836206 -0.271531928 -0.153744415 0.950070033
97.17235541 43.61987021 17.8809461 -0.295968414 -0.152673872 0.942917487
98.15093803 45.64265851 18.51489565 -0.225476992 -0.30621658 0.924873793
98.05667236 45.42032968 18.4271731 -0.194608467 -0.258077327 0.946321107
97.95904572 45.19388568 18.35116467 -0.179535236 -0.224115672 0.957882699
97.85923046 44.9651309 18.28163363 -0.182334333 -0.203971581 0.96184707
97.75841905 44.73551083 18.21564485 -0.191161973 -0.185749666 0.963822682
97.65687591 44.50518702 18.15264753 -0.20237415 -0.169866189 0.964463675
97.55485126 44.27420126 18.09039908 -0.219344595 -0.16394886 0.961773736
97.45273041 44.04346832 18.02773146 -0.239474431 -0.154640722 0.958508343
97.35040372 43.81274155 17.9642906 -0.266518186 -0.147501668 0.952476411
97.24859929 43.58210262 17.89874635 -0.294141453 -0.145000352 0.944698737
98.22956376 45.60609267 18.52195436 -0.227010795 -0.309798891 0.923304254
98.13551376 45.38409356 18.43350715 -0.195304121 -0.259753532 0.945718987
98.03796364 45.1578204 18.35750522 -0.178913947 -0.222679552 0.958333771
97.93812513 44.92898399 18.28884944 -0.179036783 -0.200445266 0.963206897
97.83705777 44.69913753 18.22418645 -0.187855277 -0.181350717 0.965309439
97.73515809 44.46859469 18.16263408 -0.200277831 -0.164433245 0.96584186
97.63282022 44.23734981 18.10190649 -0.216847398 -0.158355367 0.963276068
97.53031483 44.00639331 18.04108976 -0.235857899 -0.1473185 0.960556251
97.42750795 43.775298 17.97992821 -0.260597558 -0.140267244 0.95520365
97.32504152 43.54425944 17.91664514 -0.288154642 -0.138675494 0.947489319
96.99630774 43.42833622 17.79071759 -0.328983286 -0.152936847 0.93186926
96.89712353 43.1991728 17.7176217 -0.354670682 -0.144872362 0.923699467
96.79868811 42.97004276 17.64215605 -0.384691262 -0.142155693 0.912033109
96.70126627 42.74154569 17.56436274 -0.416056725 -0.13274427 0.899597555
96.60479576 42.51316928 17.48479598 -0.447540528 -0.124462293 0.885560056
96.50907749 42.28521598 17.40332622 -0.484959452 -0.110908813 0.867475397
96.41440951 42.05740681 17.31942289 -0.52994842 -0.097674609 0.842386101
96.32172556 41.82981233 17.2327671 -0.574591113 -0.083240775 0.814196552
96.23122762 41.60228921 17.14349799 -0.618767589 -0.068945375 0.782542783
96.14324877 41.37481315 17.05131314 -0.664635051 -0.054269503 0.745194652
97.07204227 43.39018434 17.81096049 -0.321924256 -0.145622676 0.93549923
96.97197699 43.16066875 17.7401999 -0.348474161 -0.137655881 0.92715512
96.87246183 42.93131246 17.66724372 -0.380201832 -0.132332757 0.915387682
96.77387241 42.70245617 17.59214419 -0.411683945 -0.122856253 0.90300757
96.67607093 42.4738101 17.51533649 -0.443658255 -0.113095053 0.889031418
96.57899194 42.24549377 17.43707522 -0.476417782 -0.099770476 0.873539896
96.48222719 42.01746437 17.3571715 -0.518551247 -0.083343242 0.850975034
96.38666243 41.78959047 17.27449901 -0.56785058 -0.067836213 0.82033162
96.2933803 41.56188245 17.18903918 -0.612362799 -0.052411231 0.788837667
96.20215898 41.33433304 17.10092318 -0.657579055 -0.035602954 0.75254383
97.14753755 43.35210561 17.83115938 -0.319368248 -0.136776303 0.937707932
97.04688402 43.12217753 17.76242649 -0.343638261 -0.131091979 0.929907328
96.94660115 42.89256752 17.69217903 -0.370369644 -0.123502326 0.920637552
96.84657349 42.66332137 17.61996662 -0.405350987 -0.113844309 0.90704468
96.74736429 42.43444353 17.54587877 -0.439399789 -0.101868677 0.892496834
96.64872256 42.20585685 17.47067367 -0.471888069 -0.087027497 0.87735276
96.55023941 41.97749716 17.39430265 -0.509668311 -0.070397865 0.857486066
96.45229525 41.7493349 17.31605358 -0.552832433 -0.053792055 0.831554398
96.3556634 41.52138531 17.23472229 -0.602795251 -0.03759205 0.797009864
96.26102128 41.29391417 17.150376 -0.652161793 -0.015822701 0.757914664
97.22310924 43.31401483 17.8513238 -0.315694494 -0.128292971 0.940147808
97.12169196 43.08372129 17.78466424 -0.340433109 -0.123722865 0.932093317
97.02059283 42.85388929 17.71670074 -0.366008992 -0.114155062 0.923583261
96.91955042 42.62427146 17.64745634 -0.396819837 -0.104136752 0.91197015
96.81883638 42.3950273 17.57644878 -0.431936009 -0.091715907 0.897228776
96.71846613 42.16621455 17.50426513 -0.467148401 -0.074384394 0.881044456
96.61810283 41.93760408 17.43137256 -0.503344358 -0.055950466 0.86227258
96.51781352 41.70918221 17.35691869 -0.545783911 -0.038236483 0.837053101
96.41848977 41.48096625 17.27993462 -0.590487067 -0.021876602 0.806750543
96.32031178 41.25329033 17.20017832 -0.638257291 -3.7e-05 0.769823115
98.37469475 45.43735511 18.49784957 -0.183115455 -0.310415079 0.932797518
98.27547491 45.21589115 18.41393841 -0.157143557 -0.256538201 0.953673977
98.17328808 44.99009173 18.34227167 -0.147495743 -0.218930647 0.964528059
98.06935569 44.76188332 18.27741352 -0.151314676 -0.196556635 0.968746282
97.96447114 44.53277508 18.21678344 -0.161405945 -0.17436095 0.971363156
97.85852955 44.30292726 18.15930334 -0.183097291 -0.154323798 0.97090656
97.75207398 44.07260801 18.10273744 -0.213302092 -0.139153465 0.96702561
97.64607945 43.84199989 18.04618514 -0.236214137 -0.128769491 0.963130988
97.54046027 43.61106897 17.98799182 -0.261016256 -0.128244065 0.956777913
97.43538629 43.380782 17.92753003 -0.288460846 -0.120029387 0.94993857
98.45347492 45.40063498 18.50111153 -0.184426351 -0.312327243 0.931900539
98.35437443 45.17936319 18.41711891 -0.156683314 -0.255672738 0.95398207
98.25215182 44.95352906 18.34602869 -0.146055413 -0.216147194 0.965374646
98.14809896 44.72519133 18.2822568 -0.149097549 -0.191987229 0.97000558
98.04297725 44.49591141 18.22324401 -0.158933931 -0.16748005 0.972980184
97.93687034 44.26575841 18.16800878 -0.176456716 -0.146642892 0.97332363
97.82992227 44.03510712 18.11434433 -0.205185134 -0.130278295 0.970013725
97.72314723 43.80405855 18.06003572 -0.233404128 -0.122842447 0.964589159
97.61708551 43.57300766 18.00377669 -0.257268057 -0.120075553 0.958850879
97.51133559 43.34245912 17.9457632 -0.284625952 -0.111382437 0.952146008
98.53226204 45.36389572 18.50441663 -0.18544785 -0.314406128 0.930998325
98.43328611 45.14282181 18.42024067 -0.156150141 -0.255321403 0.954163568
98.33110199 44.91696455 18.34972814 -0.143096759 -0.213700331 0.966361985
98.22687616 44.68848743 18.28709898 -0.146205526 -0.187658786 0.971291987
98.12150281 44.45903845 18.22971297 -0.156045923 -0.160757038 0.974580343
98.01505697 44.2286434 18.17663703 -0.173061898 -0.138035063 0.975190187
97.90773116 43.9976413 18.12560349 -0.199215325 -0.121519531 0.972392029
97.80049148 43.76612551 18.07370235 -0.226126926 -0.11732308 0.967006674
97.69376724 43.53491537 18.01960076 -0.252259763 -0.11245423 0.961103042
97.58724901 43.30415671 17.96394705 -0.281649975 -0.102408532 0.954036574
98.61105497 45.32716197 18.50770312 -0.18641125 -0.316455119 0.930111286
98.51218236 45.10628383 18.42337835 -0.155878208 -0.254836711 0.95433759
98.40997373 44.88042356 18.35331414 -0.142011672 -0.211205876 0.967070196
98.30574322 44.65180628 18.29178903 -0.142005465 -0.183504803 0.972707785
98.20012631 44.42214889 18.23615534 -0.151307707 -0.154482102 0.976340749
98.09324842 44.19152467 18.18526716 -0.169557711 -0.12948224 0.976977243
97.98546256 43.96020709 18.13685152 -0.194753414 -0.112112339 0.974423897
97.87766781 43.72825532 18.08712892 -0.223133612 -0.11102732 0.968444281
97.77060691 43.4968547 18.0351667 -0.245508825 -0.104877568 0.96370437
97.66342868 43.26576749 17.98216291 -0.273576193 -0.095214083 0.957126086
97.33057674 43.15063576 17.86625373 -0.317794642 -0.110203488 0.941733379
97.22652731 42.92057002 17.80329621 -0.345129738 -0.102100927 0.932984922
97.12298094 42.69070413 17.73951952 -0.370290876 -0.090982989 0.924449437
97.01961195 42.46087539 17.67482489 -0.400760543 -0.079382255 0.912737336
96.91664604 42.23127348 17.60935796 -0.432819748 -0.062658627 0.899300262
96.81359742 42.00183409 17.54399361 -0.468559389 -0.040343075 0.88251036
96.71066035 41.77213282 17.47848554 -0.506504109 -0.02110406 0.861979238
96.6084454 41.54226264 17.41189035 -0.546284875 -0.002993249 0.837594099
96.50697168 41.31248505 17.34441222 -0.588047536 0.020691279 0.808561665
96.40636253 41.0823643 17.27645282 -0.627862659 0.042036922 0.777188123
97.40598384 43.11197972 17.88691413 -0.309986858 -0.103147946 0.945128906
97.30101654 42.88169196 17.82645936 -0.338381135 -0.094427789 0.936259366
97.19641846 42.65167216 17.76510484 -0.36607305 -0.08195585 0.926970205
97.09197459 42.42173827 17.70316369 -0.395640297 -0.068363765 0.915857604
96.98759218 42.192027 17.64081299 -0.428061677 -0.050202593 0.902354088
96.88310134 41.96242535 17.57886979 -0.459889606 -0.028701092 0.887512139
96.77829944 41.73270913 17.51702297 -0.496037657 -0.008721829 0.868257204
96.67359324 41.50306272 17.45425051 -0.538710493 0.012951847 0.84239139
96.56941411 41.27348859 17.39078096 -0.58080429 0.037339222 0.813186424
96.46591642 41.04362137 17.32667812 -0.620873082 0.058223948 0.781745859
97.4811446 43.07341273 17.9074891 -0.307105323 -0.094343844 0.946987624
97.37553049 42.84283418 17.84928541 -0.333324618 -0.086919752 0.938796919
97.27019951 42.61260179 17.79055519 -0.356685577 -0.074099368 0.931281205
97.16443763 42.38255633 17.73153861 -0.388494608 -0.058225527 0.919609552
97.05854959 42.15277596 17.67226628 -0.42305663 -0.037831784 0.905313119
96.95244552 41.92308704 17.61361323 -0.454697236 -0.015691571 0.890507832
96.84609095 41.69321844 17.55500479 -0.488009645 0.002347792 0.872835079
96.7394003 41.46377815 17.49643896 -0.522925905 0.027320264 0.851940198
96.63201903 41.23439641 17.43729507 -0.569957915 0.052096466 0.820020691
96.52539779 41.00493896 17.3767514 -0.61584937 0.075602862 0.784228131
97.55637331 43.03483493 17.92802528 -0.303268843 -0.085823991 0.949032271
97.4499605 42.80400712 17.87213003 -0.329583758 -0.07873581 0.940837509
97.34383118 42.57357579 17.8155983 -0.352679608 -0.065830361 0.933425657
97.2371889 42.34342724 17.75956116 -0.378890611 -0.047596407 0.924216688
97.12970814 42.11346796 17.70374478 -0.414461986 -0.026641112 0.909676598
97.02179459 41.88374557 17.64834357 -0.449474331 -0.002726006 0.893289088
96.91374524 41.6537969 17.5929499 -0.48219104 0.014747703 0.875941954
96.80509427 41.42452152 17.53791195 -0.515166498 0.042557482 0.856032908
96.69513617 41.19536754 17.48326985 -0.556809461 0.06865183 0.827798376
96.58523587 40.96608438 17.42720341 -0.6029757 0.089591631 0.792712839
98.75056723 45.16098213 18.47418219 -0.113963901 -0.318536239 0.941035012
98.64546949 44.94023231 18.39694434 -0.096266214 -0.253113928 0.962635006
98.53787696 44.71478822 18.33317338 -0.100647908 -0.204393606 0.973700802
98.42879579 44.48700214 18.27838364 -0.118712904 -0.162493409 0.979542311
98.31907906 44.25748748 18.22981287 -0.137386319 -0.131953193 0.981689031
98.20886823 44.02693385 18.18503767 -0.157081959 -0.110735877 0.981357643
98.09815917 43.79567145 18.14100659 -0.185535366 -0.100686228 0.977465555
97.98769777 43.56431528 18.09457797 -0.220225901 -0.095978418 0.970715559
97.87812984 43.33342449 18.04659984 -0.246448202 -0.08407239 0.96550252
97.76905182 43.10218 17.99797275 -0.268374838 -0.079459854 0.960031811
98.82964885 45.12466986 18.47137305 -0.111949686 -0.317446715 0.941644758
98.72455074 44.90381718 18.3952264 -0.092224299 -0.24823273 0.964300363
98.61679256 44.67811014 18.33362602 -0.095958538 -0.195463434 0.976005126
98.50742654 44.44991002 18.28174025 -0.113729473 -0.152134298 0.981794664
98.39730123 44.21991863 18.23573823 -0.134205748 -0.124104312 0.983151533
98.28691241 43.98907999 18.1931271 -0.151270794 -0.103822131 0.98302498
98.17587387 43.75765348 18.15170179 -0.177727643 -0.092120333 0.979758506
98.06468142 43.52612145 18.10827631 -0.214938805 -0.085765322 0.972854367
97.95444101 43.29486798 18.06270438 -0.243271533 -0.077232469 0.966878538
97.8448795 43.06352431 18.01598249 -0.264795043 -0.071868182 0.961622873
98.90862331 45.08836894 18.46863443 -0.111975489 -0.315852432 0.942177654
98.803621 44.86740639 18.39325115 -0.088833345 -0.24438192 0.965601426
98.69597575 44.64143427 18.33386492 -0.086318763 -0.187437639 0.97847647
98.5861732 44.41277088 18.28509881 -0.106431065 -0.142669323 0.984031449
98.47551999 44.1823521 18.24166078 -0.131098275 -0.116215122 0.984534046
98.36482656 43.95127124 18.20117742 -0.148089264 -0.096047023 0.984299009
98.25357277 43.71961262 18.16200121 -0.171629476 -0.084674909 0.981515911
98.14201724 43.48792989 18.12171114 -0.203882845 -0.07605368 0.976036692
98.03084757 43.25626101 18.07886565 -0.238059797 -0.071328144 0.968627807
97.92065258 43.02489748 18.03392579 -0.262477735 -0.063785497 0.962827528
98.98764006 45.05206889 18.46584075 -0.111272959 -0.31441803 0.94274049
98.88262124 44.8310186 18.39132496 -0.086742777 -0.239923926 0.966908579
98.77491966 44.60481935 18.33376008 -0.082084886 -0.179315385 0.980361191
98.66506282 44.37574561 18.28806954 -0.09711432 -0.132215888 0.986452111
98.55390575 44.1447385 18.24756351 -0.124748562 -0.109306999 0.986148963
98.44273594 43.91346472 18.20922318 -0.145015534 -0.088233346 0.985487378
98.33116711 43.68161581 18.17229794 -0.167531941 -0.076326724 0.982907564
98.21913858 43.44979908 18.13479825 -0.198392419 -0.065580161 0.977926219
98.10739088 43.21774037 18.0946932 -0.231756165 -0.064236765 0.970650667
97.99661781 42.9861988 18.0519847 -0.25606088 -0.057025382 0.964977166
97.66011969 42.87119208 17.94787316 -0.295906232 -0.071609145 0.952529072
97.55182077 42.64037843 17.89551101 -0.327081101 -0.062412637 0.942932986
97.44380049 42.41012716 17.84393134 -0.349873115 -0.040358801 0.935927332
97.33525725 42.17944111 17.79373462 -0.375128222 -0.024099639 0.926659606
97.22647599 41.94890606 17.74470561 -0.398112864 -0.00311364 0.917331158
97.11685566 41.71824678 17.69664456 -0.430776928 0.017271539 0.902293152
97.0069959 41.48776162 17.64902709 -0.466520677 0.042989493 0.883464974
96.89651092 41.2575105 17.60369865 -0.495796627 0.073414417 0.865330011
96.78526769 41.0266237 17.55913948 -0.535210218 0.093273661 0.83955348
96.67446196 40.79602409 17.51457561 -0.571655246 0.122077689 0.811361398
97.7355236 42.83234465 17.96813177 -0.28849585 -0.064877311 0.955280628
97.62632404 42.60150861 17.91864846 -0.319239655 -0.052922644 0.946195137
97.51718973 42.37109507 17.86969289 -0.34554688 -0.031921064 0.937858411
97.40770835 42.14044183 17.82202259 -0.370308585 -0.014167638 0.928800748
97.29781411 41.90990664 17.77557923 -0.394256825 0.0067753 0.918975327
97.18710223 41.67943543 17.73069967 -0.421474416 0.029231796 0.90636903
97.07550438 41.44914606 17.68684115 -0.455771277 0.054901463 0.888402145
96.96291598 41.21931645 17.64500298 -0.488684021 0.087244728 0.868087718
96.84948196 40.9890203 17.60421581 -0.527540424 0.109390821 0.842457565
96.73610724 40.75903406 17.56359093 -0.564040843 0.138009591 0.814132226
97.81065395 42.79358726 17.98835488 -0.286203627 -0.056364611 0.956509547
97.70088815 42.56260785 17.9413895 -0.312680475 -0.044371724 0.948821411
97.59094386 42.33203997 17.89526881 -0.335873998 -0.024144052 0.941597431
97.48023026 42.10140409 17.85035427 -0.363943351 -0.00498147 0.931407764
97.36917002 41.87090006 17.80645448 -0.390040803 0.01652193 0.920649335
97.2571815 41.64069154 17.76461611 -0.41584213 0.042536059 0.908441526
97.14412778 41.41043825 17.72411377 -0.447556724 0.065696982 0.891839047
97.02991206 41.18102722 17.68611819 -0.473949338 0.099903921 0.874866408
96.91382739 40.95134381 17.64941516 -0.516870583 0.124005609 0.84703448
96.79769119 40.72208511 17.61247088 -0.558131142 0.154821895 0.815180845
97.88586766 42.75480184 18.00855949 -0.282514001 -0.048416734 0.958040531
97.77534032 42.5237552 17.96411876 -0.308150592 -0.034857574 0.950698776
97.66452953 42.29303348 17.92047346 -0.331578332 -0.015526645 0.943299917
97.5530021 42.06238491 17.87838009 -0.355239943 0.004479822 0.934764416
97.44069904 41.83184342 17.83734675 -0.382728493 0.025281259 0.923514893
97.32726799 41.60194219 17.79852417 -0.410091037 0.055751747 0.910338994
97.21262427 41.37179504 17.76134316 -0.441534017 0.077692082 0.893874517
97.09675509 41.14274053 17.72661973 -0.466689311 0.113519798 0.877105662
96.97861932 40.91364359 17.69413222 -0.503607585 0.139535105 0.852589793
96.8596778 40.68497051 17.66165817 -0.544190485 0.168399789 0.821886991
99.10254213 44.84523398 18.40727873 -0.01413524 -0.286858237 0.957868752
98.98930974 44.62275914 18.34913542 -0.022083131 -0.20561758 0.978383231
98.87562453 44.39568014 18.30553154 -0.037859489 -0.147588045 0.98832405
98.76128299 44.16597674 18.2694895 -0.065853333 -0.11510339 0.991168274
98.64666039 43.93549349 18.23624807 -0.100342792 -0.088916471 0.990971839
98.53212112 43.70453957 18.20461259 -0.134108889 -0.067076969 0.988693828
98.41783782 43.47297332 18.17307867 -0.165050457 -0.055946228 0.984697094
98.30405319 43.24097416 18.1391189 -0.196071607 -0.055217538 0.979033681
98.19110451 43.00919918 18.10172407 -0.225953646 -0.052858798 0.972702882
98.07906074 42.77777531 18.06251121 -0.247766571 -0.044793575 0.967783686
99.18146615 44.80925021 18.39731154 -0.003188029 -0.278181597 0.960523209
99.06821153 44.58608969 18.34302461 -0.01109623 -0.193489847 0.981039527
98.95420352 44.35836103 18.30298244 -0.032163925 -0.136895353 0.990063202
98.83975145 44.12839352 18.2703101 -0.059492426 -0.102409457 0.992961708
98.72481589 43.89760606 18.24079331 -0.09477121 -0.076166949 0.992580986
98.61001309 43.66626394 18.21242917 -0.126702558 -0.058088868 0.990238428
98.49534654 43.43450974 18.18372883 -0.157199477 -0.047976488 0.986400822
98.38092611 43.20242408 18.15235631 -0.19176324 -0.046675384 0.980330693
98.26745612 42.97051897 18.11733875 -0.222053098 -0.044873534 0.974001431
98.15487842 42.7389183 18.08013741 -0.244929004 -0.03876315 0.968765813
99.26000522 44.7733966 18.38739592 0.00012614 -0.267109509 0.963666174
99.14701494 44.54946361 18.33640203 -0.002210209 -0.182189742 0.983260908
99.03314467 44.32105986 18.30007083 -0.019368308 -0.126905783 0.991725663
98.91832538 44.09075944 18.27114751 -0.051024735 -0.090627645 0.994576848
98.80296964 43.85972343 18.24533098 -0.089215997 -0.063339378 0.993996292
98.68776229 43.62803325 18.22017891 -0.122254341 -0.048245873 0.991325482
98.57279586 43.39605324 18.1940357 -0.151580106 -0.040154542 0.987629022
98.45810682 43.16384041 18.16538639 -0.182201241 -0.03901928 0.982486745
98.34391721 42.93178897 18.13299101 -0.215917608 -0.037869773 0.975676928
98.23063193 42.70009217 18.09771632 -0.243457665 -0.032139508 0.969378882
99.33863725 44.73751484 18.37742085 0.005257497 -0.256665691 0.966485945
99.22568201 44.51289187 18.3298132 0.003978323 -0.169751193 0.985478922
99.11173521 44.28385079 18.29679378 -0.013801482 -0.115944787 0.993159768
98.99708683 44.05318341 18.2715162 -0.039243533 -0.078660488 0.996128743
98.8813606 43.8217797 18.24980551 -0.079058886 -0.051806894 0.995522847
98.76548795 43.58981114 18.22792583 -0.118281809 -0.038226837 0.992243983
98.65017474 43.35762788 18.20435307 -0.147254783 -0.031685521 0.988590945
98.53509071 43.12528734 18.17807881 -0.177735208 -0.03100035 0.983589942
98.42049251 42.89314911 18.14829509 -0.209003351 -0.029368696 0.977473825
98.30656447 42.66119888 18.11542891 -0.2380915 -0.026770367 0.970873722
97.96710726 42.54647221 18.02311416 -0.270135918 -0.033862527 0.96222654
97.85498533 42.31545335 17.98390989 -0.295902634 -0.016141505 0.955081715
97.74273136 42.08442371 17.94607287 -0.318196678 0.002890722 0.948020315
97.630107 41.85334878 17.90972742 -0.340138918 0.022314461 0.940110409
97.51663999 41.62279119 17.87646778 -0.358837768 0.051431654 0.931981889
97.40159438 41.3920988 17.84585929 -0.390200495 0.076823286 0.917519349
97.28544435 41.16224618 17.81818999 -0.421230028 0.115464421 0.899573916
97.16777243 40.93235563 17.79465408 -0.449923808 0.146081989 0.881038376
97.04919809 40.70232825 17.77283136 -0.483756251 0.171254256 0.858284259
96.92951571 40.4737134 17.75403278 -0.510167148 0.214499754 0.832898155
98.04264278 42.50763855 18.04274302 -0.262836874 -0.026151107 0.96448582
97.92973286 42.27663056 18.00629508 -0.288512833 -0.007575977 0.957446056
97.81653437 42.04560446 17.97097089 -0.313678799 0.011170296 0.949463446
97.70309361 41.81464099 17.93702823 -0.335547801 0.031423622 0.941498927
97.58865808 41.58430504 17.90637108 -0.354547903 0.06201442 0.932979097
97.47265469 41.35393142 17.87902397 -0.380222938 0.088282472 0.920671886
97.35492925 41.12464396 17.85528422 -0.409064269 0.128271158 0.903445036
97.23526166 40.89536727 17.83527775 -0.443123526 0.158792134 0.882284874
97.11487397 40.66622016 17.81701543 -0.475824616 0.186616114 0.859514607
96.99300286 40.43851276 17.80200527 -0.502646838 0.228849436 0.833651061
98.11790849 42.46889098 18.06238115 -0.260376493 -0.016790633 0.965361153
98.00455633 42.23773092 18.02827199 -0.281995352 -0.000511685 0.959415634
97.89068293 42.00677444 17.99565 -0.304114023 0.019297532 0.952440164
97.77611503 41.77590841 17.96437275 -0.330061888 0.040032972 0.943110021
97.66070347 41.54580825 17.936281 -0.349683703 0.072372986 0.93406823
97.54352316 41.31582974 17.91202255 -0.374535712 0.101148945 0.921678844
97.42448071 41.08693932 17.89182799 -0.399896432 0.140507442 0.905726505
97.30330164 40.85825827 17.87571279 -0.428862014 0.170399124 0.887153601
97.18067499 40.63005016 17.86131043 -0.465073484 0.200633601 0.862237098
97.05642659 40.40334259 17.84985598 -0.49678993 0.24393904 0.832882651
98.19325921 42.43010666 18.08202032 -0.256332452 -0.008152151 0.966554301
98.0792571 42.19888499 18.05021378 -0.277885188 0.00762044 0.960584068
97.96464799 41.96800434 18.02002994 -0.299612807 0.028695955 0.95362923
97.84938593 41.73712679 17.99146348 -0.321672586 0.047874174 0.945639895
97.73295138 41.50725768 17.96618214 -0.341289454 0.081749455 0.936396569
97.61439159 41.27772327 17.94501944 -0.368819005 0.11393145 0.922492366
97.49391619 41.04929349 17.92832993 -0.392765439 0.153797841 0.90668712
97.37116576 40.82111768 17.91557874 -0.421876462 0.182823098 0.88802926
97.24687697 40.59380903 17.90513303 -0.451725675 0.215419411 0.865758853
97.12025167 40.36801761 17.89798503 -0.48297037 0.25608061 0.837354371
99.44289999 44.52985343 18.32225292 0.102687892 -0.204760172 0.97341074
99.32292885 44.30382325 18.29456758 0.062662144 -0.128525282 0.989724562
99.20406321 44.07481363 18.27616653 0.018262915 -0.077147715 0.996852394
99.08605196 43.84410534 18.26190203 -0.020167439 -0.04864296 0.998612606
98.9683727 43.61235811 18.24736148 -0.057278728 -0.038724413 0.99760692
98.85085498 43.38062818 18.23054057 -0.097246719 -0.028278587 0.994858481
98.73389508 43.14848672 18.21043976 -0.135688831 -0.026533965 0.990396128
98.61820667 42.91622867 18.18677882 -0.159440618 -0.028448021 0.986797547
98.5028947 42.68393996 18.15880254 -0.191400989 -0.032713746 0.980966601
98.38803445 42.45313283 18.12903714 -0.222435717 -0.00745664 0.974918843
99.5206583 44.49325451 18.30576987 0.122112342 -0.188014077 0.97454568
99.40126409 44.2664751 18.28445147 0.080378792 -0.109727926 0.99070633
99.28231719 44.03695249 18.27182542 0.02742454 -0.060367174 0.997799428
99.1641879 43.8058216 18.26158307 -0.014378478 -0.037322193 0.999199837
99.04639018 43.57403665 18.25038412 -0.051776247 -0.026476545 0.998307674
98.92876073 43.34212571 18.23691708 -0.089533394 -0.018589388 0.995810326
98.81146808 43.10986838 18.21988578 -0.127866237 -0.018332258 0.991621981
98.69524142 42.87739427 18.19812496 -0.15704915 -0.023853251 0.987302683
98.57969249 42.64542744 18.17248428 -0.185545086 -0.020861652 0.982414277
98.46410779 42.41449011 18.1461094 -0.217707316 0.002293365 0.976011406
99.59776352 44.45688708 18.28942633 0.12870709 -0.166982492 0.97752306
99.47938723 44.22911786 18.27349533 0.095033236 -0.092499751 0.991167231
99.36103546 43.9991173 18.2668788 0.046502384 -0.043817096 0.997956708
99.24242813 43.76747954 18.26131801 -0.006620509 -0.027062063 0.999611831
99.12440777 43.53572105 18.25338911 -0.046228699 -0.014139237 0.998830811
99.00652771 43.30366422 18.24323393 -0.08467531 -0.008085257 0.996375793
98.88897892 43.07124916 18.22901379 -0.122062687 -0.010251654 0.992469447
98.77252592 42.83853802 18.20928068 -0.150311831 -0.019778249 0.988440779
98.65655387 42.60688604 18.18619585 -0.178347848 -0.00958194 0.983920846
98.54013399 42.375868 18.16313595 -0.213988839 0.012445712 0.976756818
99.67503806 44.42044884 18.27299344 0.138626507 -0.147347171 0.979321961
99.55725788 44.19186488 18.26256319 0.104703433 -0.073209789 0.991805181
99.4392791 43.96140179 18.26150878 0.056262752 -0.02528283 0.998095828
99.32081998 43.7291946 18.26057295 0.004164979 -0.016014041 0.999863092
99.20261752 43.49734695 18.25635052 -0.036906005 -0.002971009 0.999314325
99.08427752 43.26521078 18.24954653 -0.080154846 0.002575631 0.996779096
98.96642672 43.03265577 18.2381378 -0.117486043 -0.001643455 0.993073174
98.84962157 42.79972678 18.2202084 -0.147970087 -0.014899294 0.988879601
98.73358858 42.56832152 18.19960572 -0.168800959 0.00112249 0.98564952
98.61651607 42.33712153 18.18015426 -0.203539522 0.02015261 0.978859303
98.27304474 42.22183712 18.10190884 -0.249094643 0.011634272 0.968409264
98.15809181 41.99058479 18.07682268 -0.264736668 0.030776568 0.963829497
98.0423131 41.75912776 18.05203801 -0.296888953 0.04776128 0.953716839
97.92602213 41.52925669 18.03128256 -0.317620223 0.092806095 0.943665419
97.80830449 41.29859232 18.01596493 -0.335201912 0.114946066 0.935108058
97.68913601 41.06935526 18.0050901 -0.350551621 0.153991717 0.923796575
97.56786798 40.84020067 17.99930767 -0.37176631 0.179925728 0.910723088
97.44568954 40.61152723 17.99637392 -0.390347511 0.205404983 0.897461762
97.32196318 40.38413035 17.99763202 -0.40566898 0.238245039 0.882423923
97.1961367 40.15787504 18.00389275 -0.420012729 0.268694064 0.866829168
98.34856123 42.18317619 18.12163732 -0.242624816 0.019662982 0.969920907
98.23308316 41.95188147 18.09856661 -0.258706523 0.037046165 0.965245314
98.11647243 41.72104536 18.07702249 -0.288898621 0.062303542 0.955330234
97.99896677 41.49116898 18.05955743 -0.313299454 0.101235249 0.944243018
97.88046056 41.26084432 18.04650362 -0.33102338 0.124278573 0.935402779
97.76052015 41.03197082 18.03824912 -0.343335611 0.162464937 0.925054486
97.63827949 40.80334753 18.03516167 -0.363443856 0.188457317 0.912355415
97.51487393 40.57531546 18.03476878 -0.385043179 0.214784681 0.897557403
97.39005022 40.34859341 18.03850534 -0.400453295 0.247736953 0.882192474
97.26310012 40.12303689 18.04715285 -0.415133021 0.277465518 0.866416448
98.42385091 42.14458101 18.14144174 -0.239937372 0.028839372 0.970359906
98.3081499 41.91305588 18.11988838 -0.2534479 0.041277074 0.966467985
98.19106538 41.68290374 18.10173863 -0.27424177 0.076075801 0.958646924
98.07202342 41.45302418 18.0878954 -0.306632023 0.108531448 0.945620287
97.95261688 41.22309938 18.07703523 -0.326834713 0.133656275 0.935582744
97.83177957 40.99462317 18.07131061 -0.338847173 0.171784629 0.925025748
97.70872149 40.76639342 18.07064581 -0.357148588 0.196397398 0.913166441
97.58443739 40.5390057 18.0730119 -0.374364866 0.223444388 0.899957528
97.45823049 40.31301376 18.07945773 -0.39317361 0.256278101 0.883026641
97.33001188 40.08821835 18.09033419 -0.411546866 0.286759894 0.86509996
98.49923948 42.10594795 18.16120822 -0.235629393 0.037388713 0.971123511
98.38307344 41.87429742 18.14121257 -0.250773814 0.046737027 0.966916824
98.26543702 41.64476164 18.12596755 -0.266286222 0.090506497 0.959635463
98.14531094 41.41491038 18.11583006 -0.298013765 0.117303969 0.947326541
98.02492026 41.185301 18.10760409 -0.319827144 0.1420248 0.936770812
97.90303748 40.95727563 18.1043596 -0.334429185 0.181130685 0.924850688
97.77907893 40.72948199 18.10610856 -0.352353733 0.205066152 0.913123606
97.6538542 40.50264985 18.11085911 -0.368955097 0.232576813 0.89987786
97.52664692 40.27738034 18.12006261 -0.384344638 0.265707203 0.884126055
97.3971678 40.05331763 18.13369643 -0.402831363 0.294329147 0.866658668
99.79580547 44.25220121 18.22692642 0.246638831 -0.102524266 0.963669063
99.67272881 44.02453648 18.23724656 0.173643252 -0.042282188 0.983900522
99.55108535 43.7946407 18.24810718 0.105804257 -0.015398623 0.994267741
99.42984476 43.56406613 18.25551748 0.040789606 0.002488797 0.999164658
99.30964605 43.33294325 18.25951231 -0.009404572 0.014021536 0.999857465
99.18961804 43.10079467 18.25796541 -0.063340355 0.008712726 0.997953951
99.07008608 42.86879747 18.24888242 -0.120803248 0.01010742 0.992625012
98.95191415 42.6371006 18.23492137 -0.167386355 0.021091357 0.985665746
98.83517879 42.40570856 18.2207941 -0.18952526 0.039816865 0.98106819
98.71871855 42.17360782 18.20765429 -0.204655387 0.04441744 0.977825784
99.87104329 44.21418703 18.2028172 0.27532079 -0.07516085 0.958409782
99.74966613 43.98595467 18.22160337 0.194987076 -0.020525678 0.980591014
99.62859565 43.75605477 18.23929002 0.11690311 0.005426076 0.993128502
99.50776474 43.52545787 18.252381 0.050079096 0.020152387 0.99854192
99.38752974 43.29426282 18.26082875 -0.003454263 0.027302457 0.99962125
99.26760269 43.06217941 18.26306237 -0.05346752 0.020945476 0.998349894
99.14785223 42.83042298 18.25853385 -0.107871323 0.024605385 0.993860329
99.02879547 42.59872382 18.24881515 -0.160803845 0.032547544 0.986449584
98.91144554 42.3671501 18.23707491 -0.186846776 0.04541979 0.981338537
98.79471111 42.13510622 18.22532238 -0.201888502 0.049717611 0.978145793
99.94545317 44.17647318 18.17882383 0.288323827 -0.042031828 0.956610002
99.82618442 43.9473681 18.20507897 0.211263747 0.001037864 0.977428541
99.70665169 43.71736444 18.22974726 0.140757236 0.024247107 0.989747179
99.5859056 43.48675166 18.24925019 0.063607109 0.035877972 0.997329889
99.46539845 43.25559 18.26212386 0.002228861 0.040729974 0.999167704
99.34539059 43.02363256 18.2681217 -0.047465988 0.034537095 0.998275598
99.22558612 42.79191278 18.26756658 -0.097026053 0.036766456 0.99460252
99.10612109 42.56034542 18.26226519 -0.146683264 0.044313836 0.988190419
98.98775805 42.32856069 18.25345702 -0.183021622 0.050345884 0.981818913
98.87068314 42.09660258 18.24288318 -0.199777311 0.055035851 0.978294476
100.0199988 44.13869027 18.15462429 0.304125639 -0.010202107 0.9525773
99.90247467 43.90888822 18.18865044 0.222906584 0.024663443 0.974527767
99.78400769 43.67872337 18.21956273 0.152078446 0.044357631 0.987372547
99.66414857 43.44816277 18.24530363 0.080435302 0.054365064 0.995276144
99.54352557 43.21682585 18.26338798 0.012931191 0.052363366 0.998544372
99.42317322 42.98508951 18.27317122 -0.041525614 0.048202136 0.997974036
99.30313737 42.75347658 18.27655362 -0.089849396 0.050405969 0.994679006
99.1831537 42.52205173 18.27537447 -0.139304775 0.058014981 0.988548654
99.0641981 42.28999156 18.26956043 -0.177683305 0.055959192 0.982495401
98.94679244 42.0580596 18.2605243 -0.194777551 0.059519704 0.979039892
98.60213955 41.94151862 18.1923838 -0.230667548 0.052179623 0.971632528
98.48578451 41.71041374 18.17932009 -0.24289176 0.079044496 0.966827575
98.36835189 41.47997723 18.17223734 -0.247913672 0.109404281 0.962584809
98.24944747 41.24891379 18.16818262 -0.267888639 0.121803862 0.955719361
98.13043839 41.01899271 18.16663085 -0.277048939 0.150732087 0.948959284
98.01007369 40.79006794 18.17152975 -0.277208196 0.179717128 0.943852409
97.88784898 40.5615527 18.18104265 -0.287417879 0.199756688 0.936743416
97.76452777 40.33415959 18.19417055 -0.29793414 0.22681357 0.927249078
97.63965934 40.10825932 18.21264663 -0.306230643 0.258031726 0.916320044
97.51276832 39.88380758 18.2365026 -0.320095434 0.288529819 0.902379885
98.67790358 41.90319307 18.21221338 -0.22335968 0.058592054 0.972973496
98.56096091 41.67220987 18.20122047 -0.237383984 0.084637892 0.967721691
98.44298469 41.44196498 18.19579081 -0.244914649 0.115207279 0.962675489
98.32361662 41.21129312 18.1937492 -0.263547463 0.130014824 0.95584459
98.20397193 40.981498 18.19407621 -0.274831175 0.155717326 0.948799209
98.08335204 40.75267467 18.20007887 -0.273864943 0.182852685 0.944226079
97.96079177 40.52467368 18.21118826 -0.28137283 0.206356703 0.93714793
97.83674632 40.29775586 18.22628676 -0.294059686 0.233296354 0.926877399
97.71128462 40.0724501 18.24665387 -0.301966437 0.265749615 0.915529035
97.58366573 39.84883935 18.27283986 -0.314614227 0.298157563 0.901176984
98.75347132 41.86493974 18.2319492 -0.220143632 0.066444878 0.97320186
98.63611173 41.63399793 18.22288566 -0.233424994 0.090488105 0.968155295
98.51783534 41.40389178 18.21924541 -0.238296036 0.120134163 0.963733771
98.39786135 41.17364103 18.21933617 -0.257696624 0.137601696 0.956377657
98.27750203 40.9440042 18.22152022 -0.272673046 0.160718745 0.948587842
98.15654835 40.71530852 18.22858491 -0.272225039 0.186559974 0.943975055
98.03374892 40.48769612 18.24107547 -0.27653643 0.212129533 0.937298599
97.90923211 40.26128102 18.2582536 -0.286157908 0.239400317 0.927793695
97.78297456 40.03661366 18.28071501 -0.296258078 0.272815444 0.91531573
97.65452224 39.81388255 18.3091182 -0.310121219 0.308136038 0.899375901
98.82908008 41.82667251 18.25165268 -0.2162981 0.074120852 0.973509749
98.71121399 41.59581024 18.24457146 -0.230255353 0.096729 0.968310887
98.59255276 41.36579716 18.24243186 -0.235464675 0.125186888 0.96378661
98.47226258 41.13597542 18.24465288 -0.250220484 0.145689617 0.957164691
98.3511629 40.90646738 18.24897547 -0.268076546 0.164960921 0.949169563
98.22973687 40.67794462 18.2570886 -0.270732851 0.190314559 0.943654646
98.10664045 40.45075018 18.27094544 -0.272942088 0.218464996 0.936896826
97.98157451 40.22478128 18.289953 -0.282346195 0.246033599 0.927226021
97.85483438 40.00070509 18.31451743 -0.288946676 0.280014716 0.915478879
97.72563037 39.77883371 18.34548807 -0.300724119 0.316457785 0.899677428
100.1303899 43.9685355 18.12231451 0.273105302 0.115885841 0.954978516
100.0044049 43.74447239 18.17685952 0.112406511 0.145166256 0.983001289
99.88254721 43.51752874 18.22062823 0.0301474 0.158516725 0.986895933
99.76250306 43.28733269 18.25568197 -0.022020673 0.136272142 0.990426672
99.6437042 43.0551602 18.27939842 -0.054048293 0.106079309 0.992887689
99.52590933 42.82201944 18.29284834 -0.077783393 0.078031291 0.993911898
99.40909652 42.58911326 18.29973691 -0.091401657 0.065682939 0.993645555
99.29230612 42.35539598 18.3003983 -0.116602041 0.044416266 0.992185043
99.17624256 42.12258388 18.29570591 -0.139423632 0.047124229 0.989110893
99.06058421 41.89022363 18.29075301 -0.156213734 0.059456927 0.985932119
100.206263 43.92743156 18.10417977 0.322628942 0.162347175 0.932498772
100.0828302 43.70531693 18.17299935 0.144055808 0.175361704 0.973907694
99.96049526 43.47908196 18.22450824 0.037856419 0.174014049 0.984015245
99.84027811 43.248946 18.2626522 -0.018301594 0.142971038 0.989557646
99.72132275 43.01676676 18.2877395 -0.052653113 0.109098507 0.992635465
99.60347819 42.78364522 18.3019081 -0.076409988 0.080096445 0.993854151
99.48665232 42.55076566 18.30938099 -0.089350291 0.067456745 0.993713295
99.36980858 42.3173055 18.31120447 -0.113151735 0.0500598 0.992315827
99.25349877 42.08465576 18.30839578 -0.136204795 0.053891782 0.989213794
99.13756231 41.85234367 18.30523773 -0.15336976 0.064959325 0.986031441
100.2806738 43.88679965 18.08587064 0.345526593 0.219500039 0.912376625
100.1607042 43.66602764 18.16795133 0.167906242 0.207402599 0.963738375
100.0390078 43.44047442 18.22772566 0.057787904 0.188701267 0.980332795
99.91814828 43.21052324 18.26970299 -0.01282839 0.148635632 0.988808819
99.79892803 42.97837749 18.29604937 -0.051488338 0.112290946 0.992340513
99.68102115 42.74528757 18.31099932 -0.075496219 0.082442101 0.993732168
99.56422147 42.51232143 18.31881117 -0.087448542 0.067524192 0.993877878
99.44752808 42.27919215 18.32179874 -0.105829208 0.055474433 0.99283572
99.33083161 42.04669317 18.32112415 -0.131398774 0.059940358 0.989515799
99.21448848 41.81448283 18.31967625 -0.151614823 0.070871137 0.985895647
100.355247 43.84598447 18.06730294 0.37148455 0.272992013 0.88739765
100.2382551 43.62685115 18.16286004 0.185410724 0.24170535 0.9524712
100.1170086 43.4019031 18.23046381 0.067755654 0.20571376 0.976263807
99.99608643 43.17215231 18.27633573 -0.00596085 0.156629132 0.987639501
99.87660084 42.93996324 18.30439901 -0.049003004 0.114845377 0.992173999
99.75856611 42.70692854 18.32007519 -0.074545287 0.084806959 0.993604942
99.64171466 42.47391142 18.32824706 -0.087026982 0.068248565 0.993865402
99.525069 42.24109268 18.33215943 -0.102570275 0.061392407 0.992829447
99.40825273 42.00874615 18.33358546 -0.125519264 0.066604994 0.989852862
99.29160261 41.77656137 18.33417263 -0.146077975 0.075558789 0.986383341
98.9448368 41.65802416 18.28756473 -0.169043758 0.075084703 0.982744369
98.82880103 41.42606266 18.28677989 -0.179204921 0.093986517 0.97931207
98.71227758 41.19472497 18.29010247 -0.184786929 0.117594388 0.975717864
98.59475747 40.9637624 18.29771484 -0.194754046 0.13889179 0.970968554
98.47641821 40.73331011 18.30866707 -0.208715402 0.16137177 0.964570906
98.35724067 40.50413556 18.32427698 -0.220236027 0.193817855 0.955997245
98.23687443 40.27615947 18.34621181 -0.227795562 0.225218231 0.94730456
98.11536164 40.04920993 18.37381601 -0.232323032 0.251309859 0.939611283
97.9925614 39.82434522 18.40769179 -0.23209931 0.285053778 0.929986158
97.86798624 39.6016958 18.4491143 -0.230506686 0.317450615 0.919832471
99.02168357 41.62019931 18.3035296 -0.16413618 0.079459443 0.983232176
98.90534366 41.38840264 18.30432612 -0.174874316 0.098665414 0.979634682
98.7884701 41.15723402 18.30905752 -0.182266391 0.122336436 0.975608917
98.67069427 40.92658825 18.3182494 -0.19131971 0.145410493 0.970696944
98.55195058 40.69651928 18.33118796 -0.205286459 0.168904346 0.964017008
98.43241726 40.46768851 18.34888038 -0.214954767 0.200149667 0.955894638
98.31162392 40.2400645 18.37266005 -0.222616793 0.230158588 0.947348293
98.18962897 40.01351243 18.40174005 -0.229588052 0.256270949 0.938943304
98.06649571 39.78903444 18.43695503 -0.229471079 0.289744126 0.929188552
97.94159856 39.56677811 18.47962179 -0.22817913 0.321652816 0.918952529
99.09838168 41.58242475 18.31946214 -0.162191666 0.084807921 0.983108071
98.98186982 41.35071354 18.32167759 -0.171538 0.103168 0.979760725
98.86483878 41.11969999 18.32790531 -0.176728481 0.126548163 0.97609047
98.74668486 40.88939131 18.33879925 -0.186799889 0.151474998 0.970649848
98.62748563 40.65972846 18.35371133 -0.201781361 0.176413922 0.963411859
98.50750334 40.43126061 18.37342147 -0.211625972 0.206997828 0.955178699
98.38634573 40.20391911 18.39889501 -0.218894726 0.235058617 0.947012432
98.2640846 39.97775611 18.42955968 -0.22377368 0.260825973 0.939092728
98.14048439 39.75370255 18.46625153 -0.225696816 0.293954724 0.928790379
98.01517823 39.53186978 18.51009638 -0.226586829 0.326124569 0.917769674
99.17511379 41.54463683 18.33537341 -0.159665754 0.089967263 0.983062937
99.05834941 41.3130469 18.33904029 -0.169044182 0.10804943 0.979667997
98.94107922 41.08215553 18.34655289 -0.174394419 0.131014069 0.975921052
98.82280194 40.85216296 18.35912924 -0.180651751 0.15760308 0.970837893
98.70314556 40.62289827 18.37622545 -0.195924648 0.183263392 0.963342131
98.58257938 40.39483558 18.39796063 -0.2084837 0.213896727 0.954349379
98.46102463 40.16779526 18.42512494 -0.215975031 0.240315433 0.946363185
98.33842753 39.94196828 18.45718694 -0.220941988 0.265618136 0.938419759
98.21455915 39.71833812 18.49534848 -0.221162697 0.29870541 0.928365305
98.08888996 39.49692426 18.54064448 -0.222229574 0.329755889 0.917537503
100.6303715 44.05023373 17.87408962 0.224412625 0.552091413 0.803015595
100.5318892 43.85152701 18.02096714 0.201124967 0.457363163 0.866237661
100.4256323 43.63416994 18.1354818 0.163557198 0.314351438 0.935110804
100.3134088 43.40683397 18.21460121 0.12524415 0.21435037 0.968693874
100.1978779 43.17570607 18.26875721 0.082093865 0.144682044 0.986066784
100.0802644 42.94339737 18.30441636 0.026930774 0.107876681 0.993799454
99.9624961 42.71042602 18.32695643 -0.026193414 0.08716658 0.995849332
99.84605303 42.47702884 18.34063226 -0.05821502 0.07438667 0.995528822
99.730684 42.24353159 18.34933512 -0.07501717 0.06716293 0.994917868
99.61580871 42.01001563 18.35524968 -0.086280436 0.063436343 0.994249223
100.7089613 44.01351271 17.87764439 0.222231572 0.556187241 0.800792658
100.6098295 43.81329434 18.02318281 0.193083975 0.448000725 0.872934092
100.5033439 43.59509232 18.1350154 0.160794086 0.309770994 0.937116425
100.3911283 43.36773871 18.21320098 0.124885251 0.213135316 0.969008262
100.2757994 43.13709321 18.26796957 0.08453272 0.151134077 0.984892233
100.1586497 42.90531714 18.30624832 0.03547117 0.117670759 0.992418958
100.0409274 42.67266298 18.33214226 -0.017315832 0.095936448 0.995236836
99.92407837 42.43926459 18.34804497 -0.055946414 0.079072982 0.995297675
99.80860174 42.20574553 18.35774664 -0.073559122 0.069948003 0.994834827
99.69365512 41.97227886 18.36442605 -0.085049578 0.066127529 0.994179923
100.7878189 43.97670013 17.88113524 0.225468228 0.558429724 0.798323444
100.6878768 43.77525115 18.02568793 0.185856522 0.439508856 0.878799931
100.5809075 43.55609619 18.13481847 0.154202362 0.304987394 0.939789509
100.4688046 43.32865219 18.21176451 0.123799013 0.212393766 0.969310421
100.3537639 43.0984654 18.26720063 0.087779037 0.157173614 0.983662186
100.2368417 42.86728142 18.30800436 0.040204924 0.128540084 0.990889
100.1192455 42.63487905 18.33699562 -0.010840542 0.104910036 0.99442263
100.0023003 42.4014783 18.35525818 -0.049925537 0.083681977 0.99524106
99.88654164 42.16795019 18.36619589 -0.071633013 0.072481954 0.994793988
99.77149202 41.93453742 18.37356183 -0.084038304 0.0687971 0.994084766
100.8665863 43.93992404 17.88462725 0.226913223 0.561461019 0.795783836
100.7660538 43.73715754 18.02818817 0.181180687 0.42990737 0.884507327
100.6586523 43.51709555 18.13474781 0.150805894 0.299281382 0.942172084
100.5465088 43.28952391 18.21042147 0.12303402 0.210366634 0.969849735
100.4317467 43.05983011 18.26638822 0.091488146 0.163236678 0.982335842
100.3150556 42.82923599 18.30976636 0.045347977 0.139165584 0.989230257
100.1974801 42.59712592 18.34183318 -0.006025467 0.114522511 0.99340238
100.0803737 42.3637222 18.36233094 -0.047018662 0.089093397 0.994912867
99.96452497 42.13016183 18.37450762 -0.069025304 0.075361223 0.994764391
99.84940015 41.89677792 18.38272854 -0.081592375 0.071069591 0.994128662
99.50102954 41.77675296 18.36028842 -0.096733461 0.066645794 0.99307652
99.38603329 41.54363141 18.36425411 -0.113565393 0.075295745 0.990673232
99.27096582 41.31169505 18.37113717 -0.125735817 0.103021508 0.986700093
99.15536718 41.07980562 18.38238118 -0.139269087 0.123918442 0.982470529
99.03957329 40.84846221 18.39726818 -0.147473779 0.146872965 0.978100106
98.92309763 40.6180512 18.41707016 -0.155111883 0.173797421 0.972488951
98.80591113 40.38840719 18.44198027 -0.161442246 0.198286276 0.966756926
98.68813279 40.15986891 18.47219675 -0.162587314 0.223279538 0.961099169
98.56935954 39.93225404 18.5073002 -0.167661319 0.24463609 0.955009354
98.44998833 39.70623497 18.5473888 -0.16757851 0.271822059 0.94764456
99.57905279 41.73901486 18.37016365 -0.090812543 0.068418251 0.993514985
99.46391216 41.50625602 18.37588791 -0.10688853 0.081547484 0.990921213
99.34844709 41.27456909 18.38490073 -0.122119665 0.109901652 0.986411889
99.23258185 41.04286111 18.39797075 -0.136275464 0.129755548 0.982136699
99.11653468 40.81172059 18.41440701 -0.145128847 0.152206565 0.9776353
98.99990872 40.58156421 18.43576616 -0.151083743 0.178835413 0.972209647
98.88248276 40.35213964 18.46212801 -0.157626392 0.201978794 0.966622205
98.76442926 40.12387319 18.49347514 -0.160498993 0.227187503 0.96053418
98.6454664 39.89660008 18.52978536 -0.165255005 0.24917803 0.954254208
98.52585623 39.67078799 18.57098031 -0.166189367 0.274500898 0.947116862
99.65679086 41.7013747 18.37999758 -0.090582035 0.072065048 0.99327817
99.54174772 41.46883312 18.38718025 -0.10180539 0.087447535 0.990953375
99.42617598 41.23740047 18.39846252 -0.114073244 0.116400144 0.986629769
99.30985538 41.00588992 18.41358807 -0.132070574 0.135034216 0.981999554
99.19349486 40.77498138 18.43154283 -0.142803992 0.15758173 0.977125897
99.07665094 40.54509156 18.45442356 -0.148503935 0.184240861 0.971597595
98.95902244 40.31583755 18.48211631 -0.154937819 0.205630133 0.966286976
98.84087029 40.08783161 18.51466251 -0.155901267 0.230711944 0.960451349
98.72162522 39.86092613 18.55229214 -0.16178382 0.253289176 0.953766528
98.60169132 39.63535191 18.59454908 -0.165495286 0.277447349 0.946379564
99.73459771 41.66370468 18.38981481 -0.089042645 0.075189531 0.993185754
99.61948987 41.43145094 18.39847597 -0.098533541 0.094099645 0.990674719
99.50371978 41.20023311 18.41177811 -0.110261828 0.123444038 0.986206824
99.38722611 40.9689191 18.42896274 -0.12656189 0.140960797 0.981892123
99.27054937 40.73821123 18.44868032 -0.138643539 0.162390687 0.976937682
99.15338507 40.50862157 18.47307575 -0.146087516 0.189707347 0.970911716
99.03553012 40.27955227 18.5021081 -0.152845872 0.209551768 0.965777508
98.91720893 40.0517638 18.53569441 -0.153797869 0.234365186 0.959905816
98.79784419 39.82523219 18.57461979 -0.157709602 0.257901697 0.953212671
98.67764616 39.59988312 18.61817337 -0.162330258 0.279652125 0.946278805
100.7512218 43.33014607 18.17526132 -0.147917848 0.427693368 0.89173914
100.6304602 43.1077443 18.2498327 -0.146283763 0.345403406 0.926983035
100.5139613 42.87891473 18.30748116 -0.120214833 0.266045152 0.956435242
100.3996853 42.64559267 18.34915888 -0.100445377 0.187784255 0.977060796
100.2865286 42.40989849 18.37502721 -0.096553812 0.124618415 0.987495626
100.1745791 42.17363084 18.38826326 -0.094446202 0.082484086 0.992106996
100.0634734 41.93873067 18.39661096 -0.085088614 0.076564354 0.993427314
99.95222611 41.70402447 18.4051614 -0.07792338 0.073843231 0.994220863
99.84082053 41.47007908 18.41515133 -0.071468525 0.084276348 0.993876123
99.72865657 41.23714848 18.42931417 -0.073833012 0.107691822 0.991438933
100.8263849 43.29748577 18.2037329 -0.156390436 0.422239518 0.89289183
100.7060298 43.07320147 18.27479532 -0.159644788 0.330292351 0.930279799
100.590515 42.84268981 18.32716333 -0.130714443 0.247761483 0.95996249
100.4770448 42.60873331 18.36421546 -0.106552983 0.175395062 0.978714991
100.3643311 42.37289634 18.38727482 -0.099725364 0.117152663 0.988094178
100.2525146 42.13667595 18.39886137 -0.098242917 0.079044397 0.992018303
100.1415055 41.90178973 18.4062512 -0.088719792 0.074948483 0.993232865
100.0304385 41.66697719 18.41402525 -0.079172664 0.071418265 0.994299311
99.9191519 41.43325377 18.42391434 -0.070475872 0.086395114 0.993765081
99.80697773 41.20055751 18.43911402 -0.071581793 0.112354667 0.991086513
100.9019469 43.26469777 18.23213719 -0.157411859 0.414905017 0.896144706
100.7815719 43.03899752 18.30036772 -0.171343955 0.31782842 0.932537583
